# .PCD v.7 - Point Cloud Data file format
VERSION .7
FIELDS x y z rgb
SIZE 4 4 4 4
TYPE F F F F
COUNT 1 1 1 1
WIDTH 1148
HEIGHT 1
POINTS 1148
DATA ascii
-5.281845 0.884903 1.505575 0.000000
-5.320308 0.891347 1.519449 0.000000
-5.406836 0.905844 1.529392 0.000000
55.143223 -9.238514 6.618517 9568256.000000
55.107906 -9.232597 6.434557 9502720.000000
55.195210 -9.247225 6.260293 9568256.000000
55.211052 -9.249878 6.080175 9502720.000000
55.078827 -9.227726 5.889497 9502720.000000
55.104027 -9.231948 5.710287 9502720.000000
55.099957 -9.231266 5.529036 9502720.000000
55.084641 -9.228700 5.347129 9437184.000000
55.038155 -9.220912 5.163531 9502720.000000
55.097622 -9.230874 4.985981 9437184.000000
55.100876 -9.231420 4.805178 9437184.000000
55.158615 -9.241094 4.626949 9437184.000000
55.180527 -9.244764 4.446752 9437184.000000
55.159523 -9.241246 4.264648 9437184.000000
55.190693 -9.246468 4.084654 9437184.000000
55.183064 -9.245189 3.903116 9437184.000000
55.109871 -9.232927 3.719584 9437184.000000
48.288452 -8.090089 3.348132 6422528.000000
48.285995 -8.089678 3.189468 6356992.000000
48.197884 -8.074915 3.028991 6356992.000000
48.222687 -8.079071 2.871133 6422528.000000
48.142994 -8.065719 2.711567 6356992.000000
48.311234 -8.093905 2.555375 6422528.000000
48.275658 -8.087945 2.396404 6356992.000000
48.196499 -8.074683 2.237453 6356992.000000
48.296528 -8.091442 2.079315 6422528.000000
48.146984 -8.066388 1.920930 6356992.000000
48.223610 -8.079226 1.762414 6356992.000000
48.304451 -8.092769 1.603359 6356992.000000
48.258541 -8.085077 1.445231 6291456.000000
48.266193 -8.086360 1.286612 6356992.000000
48.151070 -8.067073 1.130161 6422528.000000
48.287704 -8.089963 0.969091 6356992.000000
48.260937 -8.085479 0.811149 6356992.000000
49.597839 -8.309460 0.615312 6094848.000000
49.629837 -8.314820 0.451409 6094848.000000
48.187405 -8.073160 0.338145 6291456.000000
48.205315 -8.076159 0.179197 6291456.000000
-5.223037 0.875051 2.214439 0.000000
-5.260293 0.881292 2.233246 0.000000
-5.393221 0.903563 2.256854 0.000000
-5.276760 0.884051 2.268639 0.000000
-5.378389 0.901078 2.291478 0.000000
-5.315316 0.890511 2.305518 0.000000
-5.294375 0.887002 2.321704 0.000000
-5.299790 0.887909 2.339440 0.000000
-5.439911 0.911385 2.366282 0.000000
-5.371987 0.900005 2.379353 0.000000
-5.281713 0.884881 2.390326 0.000000
-5.290555 0.886362 2.408356 0.000000
-5.347364 0.895880 2.430305 0.000000
-5.348120 0.896006 2.447932 0.000000
-5.229815 0.876186 2.455200 0.000000
-5.329966 0.892965 2.481424 0.000000
-5.352833 0.896796 2.501070 0.000000
-5.243201 0.878429 2.508029 0.000000
-5.351989 0.896655 2.536149 0.000000
-5.339114 0.894498 2.552395 0.000000
-5.343261 0.913277 1.447176 0.000000
-5.310443 0.907668 1.468013 0.000000
-5.272404 0.901166 1.489141 0.000000
-5.275084 0.901624 1.506207 0.000000
-5.314460 0.908354 1.519977 0.000000
-5.368714 0.917628 1.532710 0.000000
55.096729 -9.417205 6.614623 9568256.000000
55.196758 -9.434301 6.441707 9568256.000000
55.162071 -9.428372 6.257735 9568256.000000
55.084023 -9.415032 6.070787 9568256.000000
55.097935 -9.417411 5.890846 9568256.000000
55.146942 -9.425787 5.713176 9502720.000000
54.967144 -9.395056 5.520530 9502720.000000
55.206944 -9.436043 5.354561 9502720.000000
55.054462 -9.409980 5.164469 9502720.000000
55.124771 -9.421998 4.987453 9502720.000000
55.179146 -9.431292 4.809163 9502720.000000
55.130070 -9.422903 4.625589 9437184.000000
55.130890 -9.423043 4.444551 9437184.000000
55.052898 -9.409713 4.260271 9437184.000000
55.138412 -9.424329 4.082679 9437184.000000
55.095528 -9.417000 3.900098 9437184.000000
55.137550 -9.424182 3.720447 9437184.000000
47.841511 -8.177134 3.335654 9961472.000000
48.019371 -8.207533 3.182900 9961472.000000
47.933380 -8.192836 3.023344 9961472.000000
47.929443 -8.192163 2.865835 9961472.000000
47.857723 -8.179904 2.707351 9961472.000000
47.956818 -8.196841 2.551301 9961472.000000
47.906799 -8.188293 2.393376 9961472.000000
47.933624 -8.192878 2.236157 9961472.000000
47.878948 -8.183532 2.078629 9961472.000000
47.872009 -8.182345 1.921382 9961472.000000
47.959190 -8.197248 1.763717 9961472.000000
48.020973 -8.207807 1.605687 9961472.000000
47.950066 -8.195687 1.448777 9961472.000000
47.983257 -8.201361 1.290794 9961472.000000
47.918633 -8.190315 1.134360 9961472.000000
47.994461 -8.203276 0.975352 9961472.000000
48.007713 -8.205541 0.817387 9961472.000000
47.893814 -8.186073 0.662885 9961472.000000
47.948154 -8.195360 0.503882 10027008.000000
47.933437 -8.192845 0.346904 10027008.000000
47.924004 -8.191233 0.189823 10027008.000000
-5.302647 0.906335 2.217707 0.000000
45.078766 -7.704921 0.001169 10551296.000000
-5.351511 0.914687 2.254868 0.000000
-5.310775 0.907724 2.270371 0.000000
-5.297143 0.905395 2.287075 0.000000
-5.335123 0.911886 2.306657 0.000000
-5.342712 0.913183 2.324641 0.000000
-5.341353 0.912951 2.342102 0.000000
-5.274781 0.901572 2.355164 0.000000
-5.369904 0.917831 2.379206 0.000000
-5.310530 0.907683 2.392456 0.000000
-5.220426 0.892282 2.402943 0.000000
-5.318285 0.909008 2.427965 0.000000
-5.167480 0.883232 2.432802 0.000000
-5.286373 0.903554 2.460123 0.000000
-5.328355 0.910729 2.481278 0.000000
-5.317731 0.908914 2.497785 0.000000
-5.274045 0.901447 2.511018 0.000000
-5.272393 0.901164 2.528175 0.000000
-5.277136 0.901975 2.545983 0.000000
-5.272587 0.919043 1.454488 0.000000
-5.254039 0.915810 1.473664 0.000000
-5.282394 0.920752 1.488173 0.000000
-5.306590 0.924970 1.503258 0.000000
-5.312312 0.925967 1.520171 0.000000
-5.385521 0.938728 1.531247 0.000000
55.103825 -9.604920 6.615217 9502720.000000
55.191273 -9.620163 6.441266 9568256.000000
55.095436 -9.603458 6.252592 9568256.000000
55.000519 -9.586914 6.064616 9568256.000000
55.086128 -9.601836 5.890012 9568256.000000
55.215908 -9.624457 5.717820 9568256.000000
55.105515 -9.605215 5.529392 9568256.000000
55.075863 -9.600046 5.346596 9568256.000000
55.109631 -9.605932 5.167640 9502720.000000
55.039665 -9.593737 4.982840 9502720.000000
55.055382 -9.596477 4.802862 9502720.000000
55.097988 -9.603903 4.624061 9502720.000000
55.156860 -9.614165 4.445702 9502720.000000
55.170429 -9.616530 4.265096 9502720.000000
55.107830 -9.605618 4.081524 9502720.000000
55.101719 -9.604553 3.900311 9437184.000000
55.119007 -9.607567 3.719868 9437184.000000
47.937737 -8.355829 3.338341 10027008.000000
47.893803 -8.348171 3.179806 10027008.000000
47.882774 -8.346250 3.022264 9961472.000000
48.021168 -8.370372 2.867492 10027008.000000
47.909901 -8.350977 2.708122 10027008.000000
47.954201 -8.358700 2.551271 10027008.000000
48.021603 -8.370447 2.394318 9961472.000000
47.911671 -8.351286 2.236049 10027008.000000
47.895191 -8.348413 2.078656 10027008.000000
48.032463 -8.372341 1.921118 9961472.000000
47.911556 -8.351266 1.763951 10027008.000000
47.873196 -8.344580 1.606900 10027008.000000
47.919586 -8.352665 1.449127 10027008.000000
47.905968 -8.350291 1.291936 10027008.000000
47.959053 -8.359545 1.133630 10027008.000000
47.901684 -8.349545 0.977333 10027008.000000
47.934723 -8.355304 0.819185 10027008.000000
47.965351 -8.360642 0.660888 10027008.000000
47.898426 -8.348977 0.505434 10027008.000000
47.833298 -8.337626 0.350357 10027008.000000
47.972492 -8.361887 0.187991 10027008.000000
-5.304881 0.924672 2.217799 0.000000
-5.341283 0.931017 2.236837 0.000000
-5.286124 0.921403 2.251754 0.000000
-5.295858 0.923099 2.269611 0.000000
-5.377889 0.937398 2.291451 0.000000
-5.303996 0.924518 2.304868 0.000000
-5.268261 0.918289 2.320117 0.000000
-5.315879 0.926589 2.340471 0.000000
-5.315176 0.926466 2.357883 0.000000
-5.201033 0.906571 2.367281 0.000000
-5.281380 0.920575 2.390301 0.000000
-5.255676 0.916095 2.405664 0.000000
-5.300243 0.923864 2.426513 0.000000
-5.292063 0.922438 2.443236 0.000000
-5.208406 0.907856 2.453337 0.000000
-5.322635 0.927767 2.480762 0.000000
-5.239021 0.913192 2.490417 0.000000
-5.329296 0.928928 2.516371 0.000000
-5.377602 0.937348 2.538715 0.000000
-5.261092 0.917039 2.544323 0.000000
-5.265986 0.935715 1.455171 0.000000
-5.417476 0.962634 1.457291 0.000000
-5.267295 0.935948 1.489636 0.000000
-5.319802 0.945278 1.502022 0.000000
-5.282807 0.938704 1.522836 0.000000
-5.234876 0.930188 1.544359 0.000000
55.210747 -9.810423 6.624173 9502720.000000
55.175217 -9.804110 6.439973 9502720.000000
55.140236 -9.797894 6.256050 9502720.000000
55.088898 -9.788772 6.071147 9502720.000000
55.153477 -9.800247 5.894768 9568256.000000
55.117123 -9.793787 5.711168 9568256.000000
55.102722 -9.791228 5.529213 9568256.000000
55.186752 -9.806159 5.353334 9568256.000000
55.189453 -9.806640 5.172228 9568256.000000
55.075336 -9.786362 4.984773 9568256.000000
55.068954 -9.785228 4.803553 9502720.000000
55.108425 -9.792241 4.624558 9568256.000000
55.120087 -9.794313 4.444071 9502720.000000
55.074932 -9.786290 4.261175 9502720.000000
55.176151 -9.804276 4.084105 9502720.000000
55.091591 -9.789250 3.899962 9502720.000000
55.129452 -9.795978 3.720194 9502720.000000
47.943825 -8.519160 3.338511 10027008.000000
47.958202 -8.521715 3.181393 10027008.000000
47.899590 -8.511300 3.022623 10027008.000000
47.909473 -8.513057 2.865475 10027008.000000
47.943958 -8.519184 2.708625 10027008.000000
47.976982 -8.525052 2.551533 10027008.000000
48.001732 -8.529449 2.394155 10027008.000000
47.933479 -8.517322 2.236157 10027008.000000
47.894444 -8.510386 2.078655 10027008.000000
47.873199 -8.506611 1.921380 10027008.000000
48.070992 -8.541757 1.763166 10027008.000000
47.918720 -8.514699 1.606526 10027008.000000
47.903042 -8.511913 1.449317 10027008.000000
48.003426 -8.529751 1.290496 10027008.000000
48.030209 -8.534510 1.132344 10027008.000000
47.998447 -8.528867 0.975267 10027008.000000
47.860840 -8.504415 0.821005 10027008.000000
47.978348 -8.525294 0.660526 10027008.000000
47.925301 -8.515868 0.504596 10027008.000000
47.990494 -8.527453 0.344936 10027008.000000
47.882107 -8.508193 0.191405 10027008.000000
-5.425943 0.964138 2.222769 0.000000
-5.399746 0.959483 2.239429 0.000000
-5.332767 0.947582 2.253975 0.000000
-5.293271 0.940564 2.269480 0.000000
-5.282440 0.938639 2.286278 0.000000
-5.284818 0.939062 2.303766 0.000000
-5.311398 0.943785 2.322738 0.000000
-5.382343 0.956391 2.344728 0.000000
-5.330523 0.947183 2.358917 0.000000
-5.292089 0.940354 2.373711 0.000000
-5.344114 0.949598 2.394938 0.000000
-5.395048 0.958649 2.416422 0.000000
-5.325773 0.946339 2.428567 0.000000
-5.350934 0.950810 2.448167 0.000000
-5.290154 0.940010 2.460452 0.000000
-5.272320 0.936841 2.476217 0.000000
-5.300761 0.941895 2.496196 0.000000
-5.243180 0.931663 2.508027 0.000000
-5.250917 0.933038 2.526024 0.000000
-5.343169 0.949430 2.552815 0.000000
-5.281335 0.956318 1.453583 0.000000
-5.232581 0.947490 1.475813 0.000000
-5.270379 0.954334 1.489337 0.000000
-5.315849 0.962568 1.502392 0.000000
-5.295198 0.958828 1.521717 0.000000
-5.242342 0.949257 1.543709 0.000000
55.119732 -9.980808 6.616550 9437184.000000
55.100868 -9.977392 6.433990 9437184.000000
55.154156 -9.987041 6.257124 9437184.000000
55.105518 -9.978234 6.072376 9502720.000000
55.113693 -9.979714 5.891959 9502720.000000
55.228413 -10.000486 5.718661 9502720.000000
55.185074 -9.992640 5.534488 9502720.000000
55.166012 -9.989188 5.352074 9568256.000000
55.118095 -9.980512 5.168127 9568256.000000
55.151463 -9.986553 4.988899 9568256.000000
55.179749 -9.991674 4.809194 9568256.000000
55.065769 -9.971036 4.622527 9568256.000000
55.120129 -9.980880 4.444073 9568256.000000
55.218323 -9.998660 4.267062 9568256.000000
55.190327 -9.993591 4.084640 9502720.000000
55.134491 -9.983480 3.901441 9568256.000000
55.211571 -9.997437 3.722757 9502720.000000
47.911816 -8.675633 3.337617 10027008.000000
47.836441 -8.661985 3.178394 10027008.000000
47.933655 -8.679588 3.023350 10027008.000000
47.919498 -8.677025 2.865656 10027008.000000
47.911217 -8.675525 2.708141 10027008.000000
48.012936 -8.693944 2.551946 10027008.000000
47.980053 -8.687990 2.393977 10027008.000000
47.950058 -8.682559 2.236238 10027008.000000
47.917007 -8.676574 2.078692 10027008.000000
47.975998 -8.687256 1.921211 10027008.000000
47.919842 -8.677087 1.763910 10027008.000000
47.980518 -8.688074 1.606019 10027008.000000
47.784939 -8.652659 1.450675 10027008.000000
47.972980 -8.686709 1.290946 10027008.000000
47.988590 -8.689536 1.133096 10027008.000000
47.886002 -8.670959 0.977667 10027008.000000
47.908611 -8.675054 0.819829 10027008.000000
47.958790 -8.684139 0.661072 10027008.000000
48.048840 -8.700445 0.500741 10027008.000000
47.942760 -8.681237 0.346582 10027008.000000
48.012917 -8.693941 0.186464 10027008.000000
-5.369641 0.972308 2.220458 0.000000
-5.372824 0.972884 2.238236 0.000000
-5.275202 0.955207 2.251233 0.000000
-5.257646 0.952028 2.267666 0.000000
-5.271742 0.954581 2.285699 0.000000
-5.360985 0.970741 2.308143 0.000000
-5.281498 0.956348 2.320922 0.000000
-5.323502 0.963953 2.340959 0.000000
-5.254116 0.951389 2.353772 0.000000
-5.351276 0.968983 2.377891 0.000000
-5.227994 0.946659 2.386356 0.000000
-5.185856 0.939029 2.400275 0.000000
-5.335482 0.966123 2.429348 0.000000
-5.345458 0.967929 2.447708 0.000000
-5.303531 0.960337 2.461616 0.000000
-5.301112 0.959899 2.478817 0.000000
-5.332352 0.965556 2.499153 0.000000
-5.171508 0.936431 2.501083 0.000000
-5.326894 0.964568 2.533635 0.000000
-5.282011 0.956440 2.546487 0.000000
-5.252812 0.968932 1.456534 0.000000
-5.261917 0.970611 1.472874 0.000000
-5.192587 0.957823 1.496875 0.000000
-5.333182 0.983757 1.500769 0.000000
-5.252613 0.968895 1.525563 0.000000
-5.311462 0.979750 1.537693 0.000000
55.123367 -10.168035 6.616854 9371648.000000
55.178535 -10.178212 6.440240 9437184.000000
55.079208 -10.159890 6.251339 9437184.000000
55.147903 -10.172562 6.075508 9437184.000000
55.161903 -10.175143 5.895363 9502720.000000
55.151634 -10.173249 5.713492 9437184.000000
55.085117 -10.160979 5.528086 9502720.000000
55.079632 -10.159968 5.346825 9502720.000000
55.155155 -10.173899 5.170257 9502720.000000
55.134579 -10.170103 4.987984 9502720.000000
55.159901 -10.174774 4.808183 9568256.000000
55.153988 -10.173683 4.626729 9568256.000000
47.494099 -8.760743 4.105929 6553600.000000
47.326344 -8.729799 3.943047 6488064.000000
39.455868 -7.278015 3.490320 10813440.000000
39.495533 -7.285331 3.362095 10813440.000000
39.370293 -7.262229 3.228464 10813440.000000
39.502560 -7.286627 3.102845 10813440.000000
39.175396 -7.226279 2.965039 7340032.000000
47.366596 -8.737225 3.011244 6488064.000000
47.377880 -8.739305 2.855871 6488064.000000
47.355888 -8.735249 2.699934 6488064.000000
47.341118 -8.732525 2.544223 6488064.000000
47.375198 -8.738811 2.389010 6488064.000000
47.333969 -8.731206 2.233203 6488064.000000
47.409935 -8.745218 2.077859 6488064.000000
47.385216 -8.740659 1.922181 6488064.000000
47.322304 -8.729054 1.766854 6488064.000000
47.414795 -8.746115 1.610664 6488064.000000
47.409584 -8.745153 1.454990 6488064.000000
47.397449 -8.742916 1.299452 6488064.000000
47.307339 -8.726294 1.145403 6553600.000000
47.367313 -8.737357 0.988741 6488064.000000
47.394375 -8.742348 0.832496 6488064.000000
47.330589 -8.730582 0.678610 6553600.000000
47.425087 -8.748013 0.520204 6488064.000000
47.372055 -8.738231 0.366264 6488064.000000
47.380459 -8.739781 0.210353 6553600.000000
-5.320012 0.981327 2.218420 0.000000
-5.259238 0.970117 2.233199 0.000000
41.924076 -7.733299 0.003351 10944512.000000
-5.308719 0.979244 2.270266 0.000000
-5.386322 0.993559 2.291908 0.000000
-5.216025 0.962146 2.299811 0.000000
-5.274932 0.973012 2.320523 0.000000
-5.398061 0.995724 2.345734 0.000000
-5.314117 0.980240 2.357812 0.000000
-5.330940 0.983343 2.376455 0.000000
-5.354787 0.987742 2.395726 0.000000
-5.342095 0.985401 2.412335 0.000000
-5.269788 0.972063 2.424062 0.000000
-5.320169 0.981356 2.445590 0.000000
-5.242193 0.966973 2.456278 0.000000
-5.268980 0.971914 2.475915 0.000000
-5.348575 0.986596 2.500672 0.000000
-5.297248 0.977128 2.513266 0.000000
-5.276998 0.973393 2.528636 0.000000
-5.317038 0.980779 2.550111 0.000000
-5.233091 0.983006 1.458574 0.000000
-5.271006 0.990128 1.471964 0.000000
-5.254571 0.987041 1.490869 0.000000
-5.320882 0.999497 1.501920 0.000000
-5.209784 0.978628 1.529432 0.000000
-5.308745 0.997217 1.537930 0.000000
55.216213 -10.372046 6.624630 9371648.000000
55.130127 -10.355875 6.436345 9371648.000000
55.112457 -10.352555 6.253906 9371648.000000
55.127808 -10.355439 6.074023 9437184.000000
55.123466 -10.354624 5.892649 9437184.000000
55.139019 -10.357545 5.712643 9437184.000000
55.173405 -10.364004 5.533741 9437184.000000
55.049332 -10.340698 5.344984 9437184.000000
55.233044 -10.375207 5.174734 9502720.000000
55.154167 -10.360391 4.989046 9502720.000000
55.049202 -10.340673 4.802547 9502720.000000
55.160160 -10.361516 4.627022 9502720.000000
46.565029 -8.746971 4.064733 6553600.000000
46.537308 -8.741763 3.910651 6553600.000000
39.417362 -7.404323 3.488866 10813440.000000
39.469364 -7.414091 3.361193 10813440.000000
39.443985 -7.409324 3.230763 10813440.000000
38.555500 -7.242427 3.076405 7471104.000000
38.592541 -7.249385 2.950681 7471104.000000
46.546097 -8.743414 2.993726 6553600.000000
46.476841 -8.730405 2.839594 6553600.000000
46.463814 -8.727958 2.686748 6553600.000000
46.482525 -8.731473 2.534353 6553600.000000
46.469559 -8.729037 2.381574 6553600.000000
46.610344 -8.755483 2.229638 6553600.000000
46.477230 -8.730478 2.076327 6553600.000000
46.478970 -8.730804 1.923670 6553600.000000
46.528240 -8.740060 1.770766 6553600.000000
46.907761 -8.811351 1.614828 10092544.000000
47.018368 -8.832128 1.459487 10092544.000000
47.038990 -8.836001 1.304750 10092544.000000
47.066116 -8.841097 1.149760 10092544.000000
47.165955 -8.859851 0.993040 10092544.000000
47.002518 -8.829150 0.842149 10092544.000000
46.997398 -8.828189 0.687912 10092544.000000
46.991386 -8.827059 0.533736 10092544.000000
46.956554 -8.820517 0.380594 10092544.000000
46.493912 -8.733611 0.243840 6553600.000000
46.527061 -8.739839 0.089769 6553600.000000
-5.277399 0.991329 2.234004 0.000000
-5.339881 1.003066 2.254314 0.000000
-5.198955 0.976593 2.264678 0.000000
-5.231657 0.982736 2.283526 0.000000
-5.272718 0.990450 2.303070 0.000000
-5.311284 0.997694 2.322731 0.000000
-5.361666 1.007158 2.343403 0.000000
-5.297896 0.995179 2.356720 0.000000
-5.262332 0.988499 2.371610 0.000000
-5.269733 0.989889 2.389441 0.000000
-5.298542 0.995300 2.408973 0.000000
-5.234800 0.983327 2.421247 0.000000
-5.326778 1.000604 2.446144 0.000000
-5.220898 0.980715 2.454424 0.000000
-5.293925 0.994433 2.478168 0.000000
-5.177577 0.972578 2.484665 0.000000
-5.256861 0.987471 2.509353 0.000000
-5.186084 0.974176 2.519529 0.000000
-5.258206 0.987724 2.544024 0.000000
-5.339827 1.021129 1.447531 0.000000
-5.287454 1.011113 1.470316 0.000000
-5.263103 1.006457 1.490042 0.000000
-5.275477 1.008823 1.506171 0.000000
-5.283535 1.010364 1.522770 0.000000
-5.297993 1.013129 1.538866 0.000000
55.098064 -10.536335 6.614735 9371648.000000
55.093452 -10.535454 6.433393 9371648.000000
55.108982 -10.538424 6.253638 9371648.000000
55.153934 -10.547020 6.075954 9371648.000000
55.171024 -10.550288 5.896007 9371648.000000
55.165768 -10.549282 5.714444 9371648.000000
55.147205 -10.545732 5.532063 9437184.000000
55.181702 -10.552329 5.353027 9437184.000000
55.233559 -10.562246 5.174763 9437184.000000
55.199909 -10.555811 4.991524 9437184.000000
55.140133 -10.544380 4.807177 9437184.000000
55.084045 -10.533655 4.623397 9502720.000000
45.752945 -8.749280 4.028725 6750208.000000
45.661228 -8.731741 3.874683 6815744.000000
39.456913 -7.545298 3.490360 10813440.000000
39.534477 -7.560130 3.363439 10813440.000000
37.873264 -7.242458 3.181753 7536640.000000
37.891872 -7.246017 3.057877 7471104.000000
37.862179 -7.240338 2.932689 7471104.000000
45.922653 -8.781733 2.980416 9764864.000000
46.026108 -8.801517 2.831452 10092544.000000
46.012360 -8.798887 2.680076 10027008.000000
46.028057 -8.801888 2.529128 10158080.000000
45.589218 -8.717971 2.374345 6815744.000000
45.719185 -8.742824 2.225247 6815744.000000
45.639160 -8.727521 2.074951 6815744.000000
45.727577 -8.744429 1.924904 6881280.000000
45.672840 -8.733962 1.774981 6815744.000000
45.894093 -8.776271 1.623151 10158080.000000
45.779270 -8.754313 1.473732 10158080.000000
45.835598 -8.765085 1.322537 10158080.000000
45.852692 -8.768354 1.171681 10158080.000000
45.825764 -8.763206 1.021652 10158080.000000
45.853878 -8.768581 0.870444 10158080.000000
45.846210 -8.767115 0.720051 10158080.000000
45.817982 -8.761717 0.570350 10158080.000000
45.867336 -8.771154 0.418158 10158080.000000
45.920883 -8.781394 0.265484 10158080.000000
45.890266 -8.775539 0.115914 10158080.000000
-5.348228 1.022735 2.237145 0.000000
-5.261626 1.006174 2.250587 0.000000
-5.260639 1.005985 2.267818 0.000000
-5.243078 1.002627 2.284145 0.000000
-5.227757 0.999698 2.300486 0.000000
-5.352369 1.023527 2.325228 0.000000
-5.299628 1.013441 2.339430 0.000000
-5.325036 1.018300 2.358547 0.000000
-5.418130 1.036102 2.382612 0.000000
-5.300788 1.013663 2.391736 0.000000
-5.283556 1.010368 2.407816 0.000000
-5.354048 1.023848 2.430842 0.000000
-5.231369 1.000388 2.438153 0.000000
-5.259615 1.005790 2.457794 0.000000
-5.370039 1.026906 2.485043 0.000000
-5.202242 0.994818 2.486974 0.000000
-5.278450 1.009391 2.511445 0.000000
-5.231418 1.000398 2.524070 0.000000
-5.246971 1.003372 2.542862 0.000000
-5.233643 1.018537 1.458517 0.000000
-5.255554 1.022801 1.473512 0.000000
-5.367430 1.044574 1.479934 0.000000
-5.242246 1.020211 1.509281 0.000000
-5.306931 1.032800 1.520657 0.000000
-5.254493 1.022594 1.542652 0.000000
55.166317 -10.736102 6.620451 9306112.000000
55.172684 -10.737341 6.439770 9371648.000000
55.074226 -10.718180 6.250955 9371648.000000
55.014610 -10.706578 6.065658 9371648.000000
55.195889 -10.741858 5.897763 9371648.000000
55.203911 -10.743419 5.717012 9371648.000000
55.119190 -10.726931 5.530268 9371648.000000
55.232338 -10.748951 5.356104 9371648.000000
55.152138 -10.733342 5.170083 9371648.000000
55.139675 -10.730918 4.988260 9371648.000000
55.164417 -10.735733 4.808413 9437184.000000
44.902946 -8.738713 4.138519 6815744.000000
44.935963 -8.745139 3.992499 6815744.000000
44.964291 -8.750651 3.846069 6815744.000000
39.428036 -7.673222 3.489269 10813440.000000
37.301128 -7.259298 3.286416 7602176.000000
37.170399 -7.233856 3.159821 7602176.000000
37.108376 -7.221786 3.036003 7602176.000000
37.154312 -7.230726 2.915252 7602176.000000
45.832062 -8.919532 2.978482 9764864.000000
46.020206 -8.956147 2.831345 10027008.000000
46.024086 -8.956902 2.680249 10027008.000000
45.986610 -8.949609 2.528652 10158080.000000
44.867668 -8.731848 2.368420 6815744.000000
44.900135 -8.738166 2.221212 6750208.000000
44.841057 -8.726669 2.073640 6815744.000000
44.901154 -8.738364 1.926261 6815744.000000
44.935505 -8.745049 1.778614 6815744.000000
45.820862 -8.917353 1.623753 10158080.000000
45.892467 -8.931288 1.472430 10158080.000000
45.772495 -8.907939 1.323470 10158080.000000
45.904171 -8.933565 1.170751 10158080.000000
45.937626 -8.940076 1.019264 10158080.000000
45.870651 -8.927042 0.870031 10158080.000000
45.949688 -8.942423 0.717162 10158080.000000
45.854340 -8.923867 0.569215 10158080.000000
45.831116 -8.919348 0.419407 10158080.000000
45.868977 -8.926716 0.267445 10158080.000000
45.764725 -8.906426 0.121068 10158080.000000
-5.238123 1.019409 2.232263 0.000000
-5.286856 1.028893 2.251788 0.000000
-5.258773 1.023428 2.267724 0.000000
-5.360876 1.043298 2.290529 0.000000
-5.403169 1.051529 2.310568 0.000000
-5.283544 1.028248 2.321046 0.000000
-5.224685 1.016793 2.334630 0.000000
-5.212332 1.014389 2.350959 0.000000
-5.279895 1.027538 2.372850 0.000000
-5.210237 1.013982 2.385044 0.000000
-5.325279 1.036370 2.411036 0.000000
-5.288996 1.029309 2.425608 0.000000
-5.361417 1.043403 2.449045 0.000000
-5.311152 1.033621 2.462280 0.000000
-5.268548 1.025330 2.475876 0.000000
-5.304145 1.032257 2.496513 0.000000
-5.292435 1.029979 2.512800 0.000000
-5.257580 1.023195 2.526691 0.000000
-5.224018 1.016664 2.540487 0.000000
-5.267909 1.043035 1.454972 0.000000
-5.293941 1.048189 1.469666 0.000000
-5.278157 1.045064 1.488584 0.000000
-5.319381 1.053226 1.502061 0.000000
-5.214379 1.032436 1.529017 0.000000
-5.297626 1.048919 1.538898 0.000000
55.179249 -10.925378 6.621535 9306112.000000
55.162777 -10.922116 6.438972 9306112.000000
55.119267 -10.913502 6.254432 9306112.000000
55.229221 -10.935272 6.081518 9306112.000000
55.126526 -10.914938 5.892865 9371648.000000
55.168953 -10.923339 5.714658 9371648.000000
55.064655 -10.902688 5.526775 9371648.000000
55.179295 -10.925386 5.352880 9371648.000000
55.043560 -10.898512 5.163842 9371648.000000
55.175117 -10.924560 4.990181 9371648.000000
55.165607 -10.922676 4.808474 9371648.000000
38.848827 -7.691988 3.850189 9240576.000000
38.746407 -7.671709 3.718049 9240576.000000
38.802467 -7.682808 3.593087 9240576.000000
36.614269 -7.249550 3.382988 7667712.000000
36.517445 -7.230379 3.259389 7667712.000000
36.589249 -7.244596 3.141688 7667712.000000
36.654106 -7.257437 3.023321 7667712.000000
36.822948 -7.290868 2.907089 3670016.000000
45.854076 -9.079013 2.978952 9764864.000000
45.921181 -9.092299 2.829556 10027008.000000
46.051468 -9.118095 2.680654 10027008.000000
45.942982 -9.096616 2.528150 10158080.000000
44.146572 -8.740930 2.362499 6881280.000000
44.097385 -8.731192 2.217257 6881280.000000
44.154785 -8.742557 2.072513 6815744.000000
44.115742 -8.734826 1.927551 6881280.000000
44.067474 -8.725269 1.782890 6881280.000000
45.888039 -9.085737 1.623201 10158080.000000
45.817032 -9.071678 1.473298 10158080.000000
45.866230 -9.081419 1.322084 10158080.000000
45.814316 -9.071139 1.172374 10158080.000000
45.841625 -9.076547 1.021314 10158080.000000
45.877106 -9.083572 0.869872 10158080.000000
45.859806 -9.080148 0.719672 10158080.000000
45.822826 -9.072825 0.570199 10158080.000000
45.848194 -9.077848 0.418818 10158080.000000
45.761826 -9.060747 0.271492 10158080.000000
45.893517 -9.086822 0.115780 10158080.000000
-5.410828 1.071333 2.239921 0.000000
-5.183784 1.026379 2.246880 0.000000
39.362591 -7.793712 -0.003944 11403264.000000
-5.342561 1.057816 2.289537 0.000000
-5.265237 1.042506 2.302640 0.000000
-5.277666 1.044967 2.320689 0.000000
-5.305008 1.050381 2.339775 0.000000
-5.296233 1.048643 2.356608 0.000000
-5.290929 1.047593 2.373629 0.000000
-5.352676 1.059819 2.395570 0.000000
-5.214408 1.032442 2.402479 0.000000
-5.378397 1.064912 2.432802 0.000000
-5.322326 1.053810 2.445771 0.000000
-5.252447 1.039974 2.457170 0.000000
-5.261299 1.041726 2.475221 0.000000
-5.272016 1.043848 2.493505 0.000000
-5.250298 1.039548 2.508717 0.000000
-5.247763 1.039046 2.525708 0.000000
-5.296426 1.048681 2.547979 0.000000
-5.276603 1.062616 1.454072 0.000000
-5.244016 1.056053 1.474668 0.000000
-5.354762 1.078355 1.481161 0.000000
-5.267959 1.060875 1.506874 0.000000
-5.254817 1.058228 1.525364 0.000000
-5.413000 1.090083 1.528856 0.000000
55.072422 -11.090623 6.612587 9306112.000000
55.153816 -11.107015 6.438251 9306112.000000
55.132252 -11.102672 6.255434 9306112.000000
55.136261 -11.103479 6.074648 9306112.000000
55.148232 -11.105889 5.894398 9306112.000000
55.144142 -11.105066 5.712987 9306112.000000
55.151775 -11.106604 5.532355 9371648.000000
55.162971 -11.108858 5.351889 9306112.000000
55.136677 -11.103563 5.169194 9306112.000000
55.149231 -11.106091 4.988778 9371648.000000
55.111423 -11.098477 4.805715 9371648.000000
38.718418 -7.797213 3.843978 10944512.000000
38.740993 -7.801759 3.717808 10944512.000000
35.951954 -7.240095 3.476056 7798784.000000
36.022865 -7.254375 3.360650 7798784.000000
35.983330 -7.246414 3.240969 7798784.000000
35.982182 -7.246183 3.122746 7798784.000000
35.888119 -7.227240 3.001936 7733248.000000
36.828506 -7.416618 2.907226 3670016.000000
45.897102 -9.242874 2.979871 9764864.000000
45.923752 -9.248240 2.829603 10092544.000000
46.068333 -9.277357 2.680903 10092544.000000
46.033047 -9.270250 2.529186 10158080.000000
43.436604 -8.747373 2.356670 7012352.000000
43.360344 -8.732015 2.213626 7012352.000000
43.308376 -8.721550 2.071123 7012352.000000
43.366718 -8.733299 1.928781 7012352.000000
43.380516 -8.736077 1.786275 7012352.000000
45.840057 -9.231386 1.623595 10158080.000000
45.921879 -9.247864 1.472092 10158080.000000
45.786587 -9.220618 1.323261 10158080.000000
45.860687 -9.235540 1.171536 10158080.000000
45.800064 -9.223332 1.022201 10158080.000000
45.888523 -9.241146 0.869591 10158080.000000
45.756710 -9.214602 0.722550 10158080.000000
45.931805 -9.249863 0.566798 10158080.000000
45.899189 -9.243294 0.417060 10158080.000000
45.874737 -9.238370 0.267227 10158080.000000
45.803020 -9.223927 0.119496 10158080.000000
-5.353060 1.078013 2.237359 0.000000
-5.359107 1.079230 2.255229 0.000000
-5.227934 1.052815 2.266153 0.000000
-5.281469 1.063596 2.286226 0.000000
-5.406997 1.088875 2.310788 0.000000
-5.191599 1.045497 2.315459 0.000000
-5.234105 1.054057 2.335233 0.000000
-5.353073 1.078015 2.360435 0.000000
-5.334330 1.074241 2.376694 0.000000
-5.267589 1.060800 2.389282 0.000000
-5.210141 1.049231 2.402149 0.000000
-5.261298 1.059533 2.423379 0.000000
-5.257493 1.058767 2.440341 0.000000
-5.209449 1.049092 2.453428 0.000000
-5.329208 1.073209 2.481355 0.000000
-5.250170 1.057292 2.491460 0.000000
-5.266343 1.060549 2.510272 0.000000
-5.269198 1.061124 2.527855 0.000000
-5.338737 1.075128 2.552356 0.000000
-5.263308 1.077752 1.455448 0.000000
-5.299578 1.085179 1.469102 0.000000
-5.232932 1.071532 1.492966 0.000000
-5.240882 1.073160 1.509409 0.000000
-5.223679 1.069638 1.528177 0.000000
-5.259947 1.077064 1.542177 0.000000
55.179806 -11.299009 6.621581 9306112.000000
55.064846 -11.275469 6.431092 9306112.000000
55.134384 -11.289708 6.255599 9306112.000000
55.072929 -11.277124 6.069968 9306112.000000
55.121742 -11.287119 5.892527 9306112.000000
55.171593 -11.297327 5.714836 9306112.000000
55.048923 -11.272209 5.525768 9306112.000000
55.117535 -11.286258 5.349128 9306112.000000
55.247044 -11.312777 5.175538 9306112.000000
55.113106 -11.285351 4.986820 9306112.000000
55.082443 -11.279073 4.804240 9306112.000000
38.696022 -7.923672 3.842912 10944512.000000
35.822742 -7.335320 3.588411 11272192.000000
35.745808 -7.319565 3.467592 11272192.000000
35.679127 -7.305912 3.347666 11272192.000000
35.757221 -7.321902 3.233171 11272192.000000
35.772957 -7.325125 3.116217 11272192.000000
35.722527 -7.314798 2.997313 11272192.000000
36.859879 -7.547690 2.907999 3604480.000000
45.922958 -9.403511 2.980423 9764864.000000
45.908947 -9.400641 2.829335 10092544.000000
45.967545 -9.412641 2.679413 10092544.000000
45.997913 -9.418859 2.528782 10223616.000000
42.600063 -8.723091 2.349801 7143424.000000
42.666779 -8.736753 2.210209 7208960.000000
42.665070 -8.736403 2.070067 7274496.000000
42.624039 -8.728001 1.930001 7143424.000000
42.636936 -8.730642 1.789938 7208960.000000
42.646141 -8.732527 1.649821 7208960.000000
42.618675 -8.726902 1.510065 7143424.000000
42.644024 -8.732093 1.369709 7208960.000000
42.662052 -8.735785 1.229319 7208960.000000
42.608250 -8.724768 1.090344 7208960.000000
42.642040 -8.731687 0.949564 7143424.000000
42.729122 -8.749518 0.807075 7143424.000000
42.706043 -8.744793 0.667451 7208960.000000
42.600430 -8.723166 0.530825 7143424.000000
42.588909 -8.720807 0.391339 7208960.000000
42.623703 -8.727932 0.250027 7143424.000000
42.659405 -8.735243 0.108446 7208960.000000
-5.205105 1.065834 2.247895 0.000000
-5.359706 1.097492 2.272862 0.000000
-5.315150 1.088368 2.288051 0.000000
-5.269855 1.079093 2.302905 0.000000
-5.300517 1.085371 2.322077 0.000000
-5.301596 1.085593 2.339556 0.000000
-5.308352 1.086976 2.357424 0.000000
-5.264048 1.077904 2.371731 0.000000
-5.270414 1.079207 2.389491 0.000000
-5.245045 1.074013 2.404844 0.000000
-5.324439 1.090270 2.428460 0.000000
-5.210022 1.066841 2.436365 0.000000
-5.267373 1.078585 2.458469 0.000000
-5.199818 1.064752 2.469668 0.000000
-5.224722 1.069851 2.489078 0.000000
-5.249740 1.074974 2.508663 0.000000
-5.229896 1.070911 2.523918 0.000000
-5.271726 1.079476 2.545423 0.000000
-5.291429 1.101420 1.452538 0.000000
-5.360670 1.115832 1.462982 0.000000
-5.258400 1.094545 1.490498 0.000000
-5.233822 1.089429 1.510070 0.000000
-5.306000 1.104453 1.520741 0.000000
-5.186908 1.079664 1.548534 0.000000
55.197849 -11.489526 6.623093 9306112.000000
55.144100 -11.478336 6.437469 9306112.000000
55.175915 -11.484960 6.258804 9306112.000000
55.117115 -11.472720 6.073233 9306112.000000
55.113422 -11.471951 5.891940 9306112.000000
55.147385 -11.479021 5.713206 9306112.000000
55.168636 -11.483444 5.533435 9306112.000000
40.528748 -8.436127 4.462664 7274496.000000
40.613853 -8.453842 4.334439 7340032.000000
40.541409 -8.438763 4.197116 7340032.000000
40.578442 -8.446471 4.065843 7340032.000000
36.532902 -7.604385 3.739892 10878976.000000
35.716282 -7.434404 3.583690 11206656.000000
35.754791 -7.442420 3.467961 11206656.000000
35.785084 -7.448725 3.351668 11206656.000000
35.759533 -7.443407 3.233251 11272192.000000
35.757092 -7.442898 3.115722 11272192.000000
35.783081 -7.448308 2.999003 11272192.000000
36.755356 -7.650689 2.905424 3670016.000000
40.535404 -8.437512 2.865402 7274496.000000
40.521343 -8.434586 2.732010 7274496.000000
40.544006 -8.439302 2.599252 7274496.000000
40.571045 -8.444931 2.466396 7274496.000000
40.516296 -8.433536 2.332690 7274496.000000
40.594757 -8.449867 2.200001 7274496.000000
40.536774 -8.437798 2.066572 7274496.000000
40.538059 -8.438066 1.933426 7274496.000000
40.568481 -8.444398 1.800129 7274496.000000
40.634758 -8.458193 1.666337 7274496.000000
40.471180 -8.424144 1.534752 7274496.000000
40.594746 -8.449864 1.399998 7274496.000000
40.494274 -8.428951 1.268479 7274496.000000
40.644409 -8.460201 1.132270 7274496.000000
40.547031 -8.439933 1.001172 7274496.000000
40.487839 -8.427612 0.869648 7274496.000000
40.524567 -8.435257 0.735519 7274496.000000
40.572681 -8.445271 0.600757 7274496.000000
40.562962 -8.443249 0.467862 7274496.000000
40.574387 -8.445627 0.334164 7274496.000000
40.668427 -8.465201 0.196727 7274496.000000
40.491627 -8.428400 0.071572 7274496.000000
-5.302004 1.103621 2.269924 0.000000
-5.276626 1.098339 2.285964 0.000000
-5.179489 1.078119 2.297711 0.000000
-5.247870 1.092353 2.318878 0.000000
-5.279005 1.098834 2.338109 0.000000
-5.244767 1.091707 2.353143 0.000000
-5.227835 1.088183 2.369174 0.000000
-5.188720 1.080041 2.383454 0.000000
-5.249644 1.092722 2.405199 0.000000
-5.286753 1.100447 2.425427 0.000000
-5.357970 1.115270 2.448756 0.000000
-5.269894 1.096937 2.458688 0.000000
-5.370056 1.117786 2.485045 0.000000
-5.266355 1.096201 2.492975 0.000000
-5.312735 1.105855 2.514767 0.000000
-5.223113 1.087200 2.523238 0.000000
-5.270905 1.097148 2.545338 0.000000
-5.282238 1.117385 1.453489 0.000000
-5.285136 1.117998 1.470549 0.000000
-5.244078 1.109313 1.491886 0.000000
-5.268448 1.114468 1.506829 0.000000
-5.318314 1.125016 1.519629 0.000000
-5.225444 1.105371 1.545180 0.000000
55.125778 -11.661101 6.617056 9371648.000000
55.136169 -11.663300 6.436831 9371648.000000
55.134808 -11.663011 6.255631 9371648.000000
55.059093 -11.646995 6.068945 9306112.000000
55.041424 -11.643256 5.886855 9306112.000000
55.158897 -11.668107 5.713981 9306112.000000
39.960106 -8.453012 4.559361 7405568.000000
39.886372 -8.437413 4.423631 7405568.000000
39.852722 -8.430296 4.290690 7405568.000000
39.920464 -8.444626 4.163465 7405568.000000
39.863712 -8.432620 4.029456 7405568.000000
36.575642 -7.737075 3.741928 11141120.000000
35.692352 -7.550227 3.582629 11206656.000000
35.757442 -7.563995 3.468070 11206656.000000
35.762142 -7.564990 3.350802 11206656.000000
35.841419 -7.581759 3.236075 11206656.000000
35.799824 -7.572961 3.117055 11206656.000000
35.761600 -7.564875 2.998404 11206656.000000
36.877834 -7.800999 2.908441 3604480.000000
39.801674 -8.419497 2.849738 7405568.000000
39.938404 -8.448421 2.721479 7405568.000000
39.882732 -8.436644 2.589478 7405568.000000
39.871040 -8.434171 2.458349 7405568.000000
39.883286 -8.436761 2.327492 7405568.000000
39.844028 -8.428456 2.196302 7405568.000000
39.928963 -8.446424 2.065573 7405568.000000
39.863350 -8.432545 1.934534 7405568.000000
39.920334 -8.444598 1.803322 7405568.000000
39.900108 -8.440319 1.672369 7405568.000000
39.857155 -8.431233 1.541811 7405568.000000
39.897678 -8.439806 1.410301 7405568.000000
39.846729 -8.429028 1.280177 7405568.000000
39.818565 -8.423071 1.149902 7405568.000000
40.513721 -8.570121 1.001993 10682368.000000
40.555035 -8.578860 0.867772 10682368.000000
40.516197 -8.570644 0.735780 10682368.000000
40.418076 -8.549889 0.606089 10682368.000000
40.440613 -8.554656 0.472484 10682368.000000
39.904644 -8.441279 0.361661 7405568.000000
39.852108 -8.430165 0.232924 7405568.000000
39.943516 -8.449502 0.097676 7405568.000000
-5.247872 1.110115 2.267169 0.000000
36.846565 -7.794384 0.003124 11730944.000000
-5.265077 1.113755 2.302631 0.000000
-5.276224 1.116113 2.320601 0.000000
-5.281465 1.117221 2.338267 0.000000
-5.310986 1.123466 2.357601 0.000000
-5.242342 1.108945 2.370198 0.000000
-5.187531 1.097351 2.383366 0.000000
-5.310141 1.123287 2.409868 0.000000
-5.351391 1.132013 2.430629 0.000000
-5.230899 1.106525 2.438114 0.000000
-5.275525 1.115965 2.459179 0.000000
-5.254875 1.111597 2.474641 0.000000
-5.248869 1.110326 2.491338 0.000000
-5.200510 1.100096 2.503893 0.000000
-5.250649 1.110703 2.525997 0.000000
-5.152081 1.089852 2.533045 0.000000
-5.161890 1.109398 1.465941 0.000000
-5.222957 1.122522 1.476777 0.000000
-5.224080 1.122764 1.493823 0.000000
-5.206069 1.118893 1.512668 0.000000
-5.277021 1.134142 1.523359 0.000000
-5.253593 1.129107 1.542730 0.000000
55.160370 -11.855113 6.619953 9371648.000000
55.164146 -11.855925 6.439083 9371648.000000
55.164925 -11.856092 6.257956 9371648.000000
55.164791 -11.856063 6.076756 9371648.000000
55.051498 -11.831714 5.887567 9371648.000000
55.183765 -11.860141 5.715655 9306112.000000
39.261944 -8.438210 4.514645 7471104.000000
39.344704 -8.455997 4.390718 7471104.000000
39.281761 -8.442469 4.257872 7471104.000000
39.222195 -8.429667 4.125622 7471104.000000
39.264763 -8.438816 3.998964 7471104.000000
36.387341 -7.820398 3.732960 11141120.000000
35.760777 -7.685736 3.585663 11206656.000000
35.701328 -7.672959 3.465766 11206656.000000
35.773891 -7.688555 3.351245 11206656.000000
35.759533 -7.685469 3.233251 11206656.000000
35.757477 -7.685028 3.115734 11206656.000000
35.794250 -7.692931 2.999315 11206656.000000
36.807133 -7.910620 2.906700 3604480.000000
39.273293 -8.440649 2.838457 7471104.000000
39.347935 -8.456691 2.710812 7471104.000000
39.263832 -8.438616 2.580331 7471104.000000
39.217083 -8.428569 2.450831 7471104.000000
39.306175 -8.447717 2.322754 7471104.000000
39.287895 -8.443788 2.193562 7471104.000000
39.323711 -8.451485 2.064579 7471104.000000
39.338966 -8.454763 1.935395 7471104.000000
39.306358 -8.447756 1.806347 7471104.000000
39.348457 -8.456804 1.676899 7471104.000000
39.240925 -8.433692 1.548895 7471104.000000
39.340294 -8.455050 1.418539 7471104.000000
39.395168 -8.466843 1.288334 7471104.000000
39.307507 -8.448002 1.160812 7471104.000000
40.434822 -8.690286 1.003937 10682368.000000
40.437103 -8.690776 0.871064 10682368.000000
40.569374 -8.719204 0.734121 10682368.000000
40.460487 -8.695802 0.604626 10682368.000000
40.426956 -8.688596 0.473000 10682368.000000
39.351463 -8.457450 0.384373 7471104.000000
39.199993 -8.424895 0.261839 7471104.000000
39.278397 -8.441747 0.129352 7471104.000000
-5.191739 1.115813 2.264311 0.000000
-5.197493 1.117049 2.281675 0.000000
-5.234834 1.125075 2.300892 0.000000
-5.301215 1.139342 2.322120 0.000000
-5.296821 1.138397 2.339250 0.000000
-5.280139 1.134812 2.355525 0.000000
-5.231437 1.124345 2.369428 0.000000
-5.273235 1.133328 2.389699 0.000000
-5.335084 1.146621 2.411793 0.000000
-5.251935 1.128750 2.422626 0.000000
-5.223559 1.122652 2.437499 0.000000
-5.278506 1.134461 2.459438 0.000000
-5.276212 1.133968 2.476568 0.000000
-5.223914 1.122728 2.489002 0.000000
-5.204883 1.118638 2.504317 0.000000
-5.209798 1.119694 2.521904 0.000000
-5.217725 1.121398 2.539836 0.000000
-5.237840 1.143449 1.458083 0.000000
-5.291111 1.155078 1.469950 0.000000
-5.152365 1.124789 1.500772 0.000000
-5.303894 1.157869 1.503511 0.000000
-5.236825 1.143227 1.526989 0.000000
-5.386502 1.175903 1.531162 0.000000
55.148827 -12.039288 6.618987 9437184.000000
55.226231 -12.056186 6.444078 9371648.000000
55.095482 -12.027642 6.252595 9371648.000000
55.112408 -12.031337 6.072885 9371648.000000
55.149075 -12.039342 5.894457 9371648.000000
55.086586 -12.025701 5.709112 9371648.000000
38.708546 -8.450285 4.479201 7602176.000000
38.701714 -8.448794 4.351647 7536640.000000
38.659519 -8.439583 4.222106 7602176.000000
38.689274 -8.446078 4.096741 7536640.000000
38.759693 -8.461451 3.973251 7536640.000000
36.433990 -7.953738 3.735182 10944512.000000
35.801266 -7.815610 3.587459 11206656.000000
35.754467 -7.805394 3.467947 11206656.000000
35.739025 -7.802022 3.349928 11206656.000000
35.672642 -7.787531 3.230254 11206656.000000
35.666538 -7.786199 3.112897 11206656.000000
35.798119 -7.814923 2.999423 11206656.000000
36.692982 -8.010277 2.903888 3670016.000000
38.717556 -8.452252 2.826593 7602176.000000
38.644245 -8.436248 2.698100 7602176.000000
38.649765 -8.437453 2.571254 7602176.000000
38.640945 -8.435528 2.444208 7602176.000000
38.710758 -8.450768 2.317864 7602176.000000
38.701527 -8.448753 2.190673 7602176.000000
38.655708 -8.438751 2.063483 7602176.000000
38.638470 -8.434988 1.936546 7602176.000000
38.644306 -8.436261 1.809609 7602176.000000
38.645336 -8.436486 1.682673 7602176.000000
38.769867 -8.463672 1.554310 7602176.000000
38.649776 -8.437456 1.428745 7602176.000000
38.682716 -8.444647 1.301205 7602176.000000
38.705242 -8.449564 1.173670 7602176.000000
39.842136 -8.697754 1.018537 7471104.000000
39.995193 -8.731168 0.883402 7471104.000000
39.944607 -8.720124 0.753616 7471104.000000
39.921650 -8.715113 0.623209 7471104.000000
39.908901 -8.712330 0.492568 7471104.000000
38.746197 -8.458505 0.409223 7602176.000000
38.684498 -8.445036 0.284697 7602176.000000
38.672005 -8.442308 0.158232 7602176.000000
-5.373259 1.173012 2.273552 0.000000
-5.329550 1.163470 2.288832 0.000000
-5.205957 1.136489 2.299232 0.000000
-5.200022 1.135193 2.315971 0.000000
-5.206744 1.136660 2.333481 0.000000
-5.265145 1.149410 2.354515 0.000000
-5.237834 1.143448 2.369880 0.000000
-5.221810 1.139949 2.385899 0.000000
-5.310308 1.159269 2.409881 0.000000
-5.221944 1.139979 2.420212 0.000000
-5.246166 1.145266 2.439392 0.000000
-5.232040 1.142183 2.455394 0.000000
-5.213596 1.138156 2.470913 0.000000
-5.236374 1.143129 2.490169 0.000000
-5.276953 1.151988 2.511300 0.000000
-5.294128 1.155737 2.530352 0.000000
-5.201341 1.135481 2.538141 0.000000
-5.219989 1.157219 1.459930 0.000000
-5.239494 1.161543 1.475121 0.000000
-5.222835 1.157850 1.493944 0.000000
-5.209587 1.154913 1.512339 0.000000
-5.231020 1.159665 1.527514 0.000000
-5.334769 1.182665 1.535665 0.000000
55.166016 -12.229753 6.620426 9502720.000000
55.072876 -12.209106 6.431738 9437184.000000
55.195927 -12.236384 6.260348 9437184.000000
55.173267 -12.231361 6.077383 9437184.000000
55.156967 -12.227748 5.895014 9371648.000000
38.071697 -8.440114 4.563459 7667712.000000
38.027004 -8.430207 4.435550 7667712.000000
38.074646 -8.440768 4.313544 7667712.000000
38.035683 -8.432131 4.186248 7667712.000000
38.099987 -8.446385 4.064805 7667712.000000
38.132683 -8.453634 3.941330 7667712.000000
36.590652 -8.111782 3.742643 9895936.000000
35.766273 -7.929025 3.585907 11206656.000000
35.797951 -7.936048 3.469733 11206656.000000
35.820358 -7.941016 3.353001 11206656.000000
35.808735 -7.938438 3.234947 11206656.000000
35.827374 -7.942570 3.117915 11206656.000000
35.793102 -7.934973 2.999283 11206656.000000
36.798252 -8.157804 2.906481 3604480.000000
38.005165 -8.425364 2.811383 7667712.000000
38.007084 -8.425791 2.686590 7667712.000000
38.054413 -8.436282 2.562455 7667712.000000
38.098976 -8.446162 2.437977 7667712.000000
38.105171 -8.447536 2.312892 7667712.000000
38.089901 -8.444150 2.187660 7667712.000000
38.140560 -8.455381 2.062636 7667712.000000
38.182854 -8.464757 1.937294 7667712.000000
38.079403 -8.441823 1.812392 7667712.000000
38.089176 -8.443990 1.687240 7667712.000000
38.121010 -8.451047 1.561769 7667712.000000
38.126816 -8.452333 1.436475 7667712.000000
38.232368 -8.475734 1.309340 10944512.000000
38.123306 -8.451555 1.186094 10944512.000000
38.207443 -8.470208 1.058805 10944512.000000
38.270016 -8.484080 0.931566 10944512.000000
38.313667 -8.493757 0.804506 10944512.000000
38.081314 -8.442246 0.686677 11010048.000000
38.239265 -8.477262 0.555633 11010048.000000
38.208031 -8.470338 0.431318 11010048.000000
38.223442 -8.473755 0.305140 11010048.000000
38.245380 -8.478619 0.178550 11010048.000000
-5.263477 1.166860 2.267963 0.000000
-5.192636 1.151155 2.281412 0.000000
34.831432 -7.721780 -0.002072 12320768.000000
-5.309741 1.177116 2.322638 0.000000
-5.271536 1.168647 2.337631 0.000000
-5.248184 1.163470 2.353373 0.000000
-5.338732 1.183543 2.377005 0.000000
-5.296154 1.174104 2.391393 0.000000
-5.274913 1.169395 2.407149 0.000000
-5.229925 1.159422 2.420854 0.000000
-5.249900 1.163850 2.439705 0.000000
-5.270391 1.168393 2.458732 0.000000
-5.247797 1.163384 2.474002 0.000000
-5.247403 1.163297 2.491201 0.000000
-5.270038 1.168315 2.510630 0.000000
-5.182350 1.148875 2.519155 0.000000
-5.239140 1.161465 2.542052 0.000000
-5.243859 1.180259 1.457460 0.000000
-5.166073 1.162752 1.482476 0.000000
-5.273036 1.186826 1.489080 0.000000
-5.238857 1.179133 1.509599 0.000000
-5.220126 1.174918 1.528498 0.000000
-5.245595 1.180650 1.543426 0.000000
55.114449 -12.404861 6.616107 9502720.000000
55.157658 -12.414587 6.438560 9502720.000000
55.141232 -12.410890 6.256127 9502720.000000
55.163361 -12.415870 6.076650 9502720.000000
55.120335 -12.406186 5.892427 9437184.000000
37.539845 -8.449265 4.527648 7798784.000000
37.497524 -8.439739 4.401638 7798784.000000
37.455799 -8.430348 4.275941 7798784.000000
37.529469 -8.446930 4.157152 7798784.000000
37.605831 -8.464117 4.038024 7798784.000000
37.568794 -8.455781 3.912622 7798784.000000
37.582428 -8.458849 3.789876 7798784.000000
35.724113 -8.040589 3.584038 11206656.000000
35.717464 -8.039093 3.466429 11206656.000000
35.799725 -8.057608 3.352221 11206656.000000
35.692982 -8.033584 3.230956 11206656.000000
35.732525 -8.042483 3.114956 11206656.000000
35.707859 -8.036931 2.996903 11206656.000000
36.825367 -8.288454 2.907149 3604480.000000
37.534809 -8.448132 2.801342 7798784.000000
37.528374 -8.446683 2.677942 7798784.000000
37.519829 -8.444759 2.554554 7798784.000000
37.452053 -8.429505 2.430540 7798784.000000
37.546230 -8.450703 2.308302 7798784.000000
37.524189 -8.445741 2.184873 7733248.000000
37.527252 -8.446430 2.061629 7733248.000000
37.453236 -8.429771 1.938492 7798784.000000
37.451347 -8.429347 1.815486 7798784.000000
37.534630 -8.448091 1.691793 7733248.000000
37.473335 -8.434295 1.569215 7733248.000000
37.540100 -8.449323 1.445147 7798784.000000
38.196198 -8.596993 1.309994 11010048.000000
38.279633 -8.615772 1.182757 11010048.000000
38.239552 -8.606751 1.058014 11010048.000000
38.191223 -8.595874 0.933765 11010048.000000
38.141621 -8.584709 0.809874 11010048.000000
38.181206 -8.593618 0.683232 11010048.000000
38.209476 -8.599981 0.556758 11010048.000000
38.210575 -8.600229 0.431214 11010048.000000
38.189220 -8.595423 0.306658 11010048.000000
38.218006 -8.601901 0.179854 11010048.000000
-5.181952 1.166326 2.263813 0.000000
-5.290704 1.190803 2.286726 0.000000
-5.295328 1.191844 2.304369 0.000000
-5.252361 1.182173 2.319151 0.000000
-5.206188 1.171781 2.333445 0.000000
-5.251273 1.181928 2.353581 0.000000
-5.229547 1.177038 2.369294 0.000000
-5.246067 1.180756 2.387692 0.000000
-5.351216 1.204423 2.413038 0.000000
-5.232328 1.177664 2.421048 0.000000
-5.213445 1.173414 2.436652 0.000000
-5.273101 1.186841 2.458968 0.000000
-5.311409 1.195463 2.479748 0.000000
-5.348222 1.203749 2.500639 0.000000
-5.236426 1.178586 2.507373 0.000000
-5.279352 1.188248 2.528872 0.000000
